ply
format ascii 1.0
comment VCGLIB generated
element vertex 907
property float x
property float y
property float z
property float nx
property float ny
property float nz
element face 0
property list uchar int vertex_indices
end_header
0.022408 0.124516 0.023412 2.77282 5.04659 1.66996 
0.015959 0.127253 0.024312 2.49619 5.17092 1.73333 
0.013658 0.127838 0.025474 1.98607 5.2697 2.05785 
0.014592 0.127897 0.024262 2.23642 5.28151 1.75047 
0.010221 0.127911 0.027537 1.09608 5.16627 2.83553 
0.011233 0.128179 0.026525 1.42027 5.29022 2.43537 
0.012224 0.128358 0.025405 1.68798 5.3686 2.06882 
0.00674 0.127752 0.028571 0.364102 5.06938 3.18657 
0.008049 0.127822 0.028269 0.488737 4.23994 2.60168 
0.008804 0.128327 0.02725 0.785889 5.22054 2.83807 
0.025672 0.122688 0.022003 3.60518 4.66233 1.1168 
0.024465 0.123563 0.022205 3.43193 4.76819 1.19642 
0.023231 0.124398 0.022192 3.1035 4.96263 1.29402 
0.026468 0.122346 0.020667 3.70029 4.64457 0.847796 
0.02764 0.121418 0.020534 3.79718 4.58158 0.754805 
0.028792 0.12044 0.020532 3.93588 4.47624 0.670925 
0.029866 0.119425 0.020783 4.09837 4.32848 0.667073 
0.030875 0.118372 0.021148 4.2516 4.16663 0.736205 
0.03173 0.117611 0.020288 5.11567 4.72549 0.687027 
0.032677 0.116584 0.020033 3.77941 3.23825 0.466595 
0.033519 0.115495 0.020459 4.67477 3.7017 0.652567 
0.034312 0.114335 0.021071 4.78765 3.52961 0.776247 
0.03588 0.092764 0.037797 4.57115 1.37157 3.63024 
0.036671 0.093271 0.036551 4.70122 1.43325 3.43637 
0.035157 0.092047 0.038924 4.41786 1.24518 3.85528 
0.034473 0.091308 0.039899 4.28214 1.13725 4.0372 
0.033793 0.090422 0.040817 4.07331 0.95113 4.28906 
0.033235 0.08934 0.041515 3.78494 0.613097 4.59716 
0.032649 0.088177 0.042039 3.41842 0.150075 4.9179 
0.031605 0.08851 0.042685 2.42801 0.154859 4.35751 
0.037356 0.09378 0.035349 4.78173 1.54596 3.27301 
0.038332 0.095503 0.032978 4.809 1.71691 3.14547 
0.037883 0.094615 0.034139 4.80509 1.67469 3.17471 
0.038755 0.096376 0.031844 4.85026 1.74757 3.06274 
0.03047 0.087556 0.043249 3.33634 -0.007449 6.14764 
0.028954 0.087227 0.044157 3.43052 0.180892 4.8981 
0.027829 0.08736 0.045105 4.59896 0.543459 5.24449 
0.039203 0.097151 0.03066 4.94083 1.78051 2.89314 
0.026796 0.086618 0.046125 3.91351 0.56649 4.51081 
0.039567 0.097893 0.029514 5.06273 1.83913 2.63594 
0.02585 0.085711 0.04702 3.60655 0.52861 4.75676 
0.021022 0.08646 0.04942 1.95108 1.63555 5.42352 
0.022015 0.085503 0.049273 2.44309 1.38469 5.2955 
0.019758 0.085918 0.050038 1.96014 1.8933 5.34416 
0.018421 0.085463 0.050707 2.20384 1.90169 5.23929 
0.017411 0.086482 0.050857 2.67792 1.50249 5.1436 
0.016473 0.087668 0.051108 3.21354 1.00682 4.95189 
0.015535 0.088843 0.051593 3.454 0.81801 4.83263 
0.014538 0.089963 0.052073 3.77663 1.45155 5.6963 
0.013155 0.090583 0.052732 2.72258 1.81924 5.01111 
0.011821 0.09076 0.053303 2.10602 2.19678 5.15383 
0.010379 0.090872 0.053741 1.60271 2.48992 5.21039 
0.024022 0.085347 0.048273 2.54955 0.753328 4.22781 
0.025015 0.084723 0.047707 3.41051 0.641641 4.89089 
0.023031 0.084572 0.048999 2.85009 1.179 5.13935 
0.039851 0.09861 0.028382 4.30361 1.5515 2.01636 
0.037215 0.109841 0.021226 5.06716 3.04805 1.0156 
0.037818 0.108667 0.021735 5.10849 2.97893 1.0121 
0.038576 0.107254 0.021983 5.21358 2.77716 1.03961 
0.035188 0.113318 0.020046 5.69089 3.99906 0.777886 
0.036184 0.111911 0.019824 4.95115 3.30613 0.734442 
0.037032 0.110599 0.01989 5.0086 3.17642 0.888864 
0.039629 0.10447 0.023071 5.42833 2.1932 1.30209 
0.0398 0.10332 0.024088 5.42179 2.03271 1.56511 
0.039846 0.101387 0.025988 5.355 1.86288 1.9593 
0.040203 0.101688 0.024694 5.37244 1.97473 1.79446 
0.040177 0.100027 0.026403 5.27886 1.93655 2.09014 
0.040395 0.098671 0.027114 5.22245 1.91396 2.24788 
0.039277 0.105815 0.022053 6.25524 2.86897 1.26495 
0.004206 0.095685 0.053 1.50912 2.91756 3.75853 
0.005119 0.093716 0.053862 1.86158 2.66173 5.04027 
0.004086 0.094732 0.053693 1.7837 2.98276 4.88161 
0.006112 0.092496 0.05412 1.70531 2.55864 5.14818 
0.00716 0.091354 0.054365 1.46569 2.57222 5.21579 
0.009492 0.089966 0.054422 1.57884 2.2622 5.31805 
0.008056 0.090197 0.054696 1.39515 2.41963 5.30647 
0.002868 0.095987 0.053275 1.52728 3.60155 4.52424 
0.001505 0.096131 0.053556 1.20079 3.64416 4.58866 
-0.004782 0.102808 0.044367 -0.177476 2.2787 5.4325 
-0.006035 0.103753 0.044095 -0.280174 0.961085 5.8971 
-0.005604 0.105023 0.044032 -0.237609 0.449194 5.97709 
-0.005501 0.109005 0.043323 0.018327 1.84876 5.70345 
-0.006034 0.107576 0.043722 -0.140375 1.24251 5.85608 
-0.006599 0.10607 0.043911 -0.337719 0.602561 5.95546 
-0.005278 0.101954 0.044961 -0.05506 3.85816 4.56715 
-0.001383 0.098533 0.051345 0.278 5.0129 3.27988 
-0.000369 0.097133 0.053083 0.558618 3.55359 3.44295 
-0.001594 0.09771 0.052543 0.283848 5.41548 4.3983 
-0.002374 0.099237 0.05027 0.053203 5.22262 2.93827 
-0.003479 0.099741 0.049262 -0.058333 5.4261 2.54955 
-0.00321 0.100356 0.047808 -0.047633 5.56007 2.25366 
-0.004298 0.100685 0.046951 -0.02618 4.63393 1.87739 
-0.005239 0.101018 0.04614 0.006982 5.3819 2.62336 
-0.006115 0.101391 0.045521 0.00354 4.705 3.64339 
0.00011 0.096141 0.053851 0.945897 4.11733 5.55389 
-0.006357 0.110148 0.042897 -0.14139 2.12501 5.60799 
-0.005864 0.111508 0.042362 -0.195412 2.35733 5.51048 
-0.006269 0.113892 0.041196 -0.406805 2.68883 5.34751 
-0.006771 0.112598 0.041808 -0.301205 2.61875 5.38919 
-0.00561 0.115146 0.040609 -0.514086 2.81917 5.26982 
-0.006582 0.116024 0.040021 -0.512776 2.95595 5.19564 
-0.005881 0.117175 0.039443 -0.585811 3.04915 5.13277 
-0.005074 0.118224 0.038889 -0.561691 3.271 4.99697 
-0.004384 0.119383 0.038174 -0.48639 3.47878 4.86247 
0.004738 0.126869 0.030071 0.200279 4.95831 3.37065 
0.003139 0.126737 0.030353 0.202685 5.76448 3.96279 
0.005319 0.12765 0.028841 0.20441 5.05273 3.22859 
-0.001628 0.121983 0.036191 0.287234 4.12074 4.34097 
-0.003951 0.120723 0.037211 -0.443753 4.29071 5.5104 
-0.003055 0.121772 0.036417 -0.077137 3.98682 4.47194 
0.000904 0.125592 0.031999 0.09462 4.68148 3.74724 
-0.002296 0.12288 0.035309 0.168408 4.4053 4.0612 
-0.001824 0.123743 0.034264 0.172951 4.60908 3.83427 
-0.001115 0.124589 0.033212 0.057106 4.60051 3.84927 
-0.000536 0.125488 0.032142 -0.001171 4.6754 3.7569 
0.001657 0.126241 0.031116 0.105359 4.04154 2.94092 
0.018217 0.126538 0.023059 2.4152 5.24852 1.61074 
0.019591 0.125925 0.023081 2.28634 5.28199 1.6897 
0.016891 0.127176 0.023041 2.54449 5.21414 1.52649 
0.021021 0.125314 0.023104 2.39475 5.23089 1.68828 
0.021959 0.125152 0.022116 2.6943 5.17448 1.37604 
0.015537 0.127849 0.023031 2.4536 5.25953 1.51501 
0.013217 0.128444 0.024213 1.9185 5.39965 1.7698 
0.014152 0.128474 0.022962 2.15426 5.38387 1.52984 
0.00974 0.128619 0.026326 1.07756 5.36719 2.44318 
0.010813 0.128805 0.025285 1.39301 5.4442 2.09112 
0.011839 0.128934 0.024085 1.65926 5.47839 1.79217 
0.005885 0.128418 0.027572 0.261827 5.18909 2.99397 
0.007322 0.128494 0.027265 0.49011 5.23111 2.88743 
0.008043 0.129036 0.026015 0.820982 6.34444 2.82637 
0.025263 0.123256 0.020826 3.58953 4.72203 0.895706 
0.024053 0.124118 0.020977 3.37539 4.87038 0.923672 
0.022737 0.125006 0.020873 3.04065 5.0713 0.975359 
0.026035 0.122893 0.019412 3.69283 4.68058 0.662818 
0.027225 0.121944 0.019283 3.81526 4.59056 0.597644 
0.028437 0.120915 0.019237 3.93698 4.49566 0.526895 
0.029608 0.119845 0.01933 4.07316 4.37734 0.490248 
0.030608 0.118841 0.019738 4.21787 4.23411 0.51948 
0.031366 0.118157 0.018947 3.60275 3.44616 0.370165 
0.032326 0.117133 0.018804 4.46309 3.98546 0.432943 
0.03333 0.11596 0.018858 5.39737 4.42399 0.522733 
0.0343 0.11461 0.01967 4.76921 3.59507 0.562071 
0.036748 0.091977 0.03692 4.78466 1.05215 3.45726 
0.036065 0.091395 0.038011 3.89126 0.815967 3.02452 
0.037634 0.092316 0.035539 5.7109 1.27759 3.83196 
0.035494 0.090604 0.038903 4.59644 0.80171 3.76442 
0.034832 0.089991 0.039815 4.48673 0.689921 3.91247 
0.034266 0.08903 0.040583 4.32335 0.448665 4.12232 
0.033685 0.087919 0.041242 4.01095 0.077602 4.43858 
0.032989 0.086755 0.041774 3.58717 -0.205177 4.79259 
0.031785 0.087083 0.042577 3.00439 -0.143994 5.18215 
0.038244 0.093152 0.034294 4.95119 1.29813 3.12188 
0.03923 0.094873 0.031869 5.02307 1.43976 2.94075 
0.038753 0.094013 0.033067 4.99061 1.4004 3.01535 
0.039647 0.095726 0.03069 5.07208 1.51357 2.82067 
0.029804 0.086379 0.043619 2.65831 0.042744 4.2273 
0.030932 0.086011 0.042976 2.91297 -0.080197 5.24191 
0.028792 0.085744 0.044356 4.45541 0.337782 5.36619 
0.027789 0.086014 0.045294 3.40655 0.365429 3.64056 
0.040108 0.096496 0.029391 5.13994 1.64065 2.61933 
0.026914 0.085151 0.046189 3.97946 0.429261 4.46656 
0.040406 0.097325 0.028185 5.19018 1.81019 2.40289 
0.026038 0.084186 0.047024 3.75506 0.442329 4.65199 
0.020866 0.084951 0.049962 2.2383 1.67409 5.30262 
0.021915 0.084023 0.04974 2.64831 1.36927 5.20282 
0.019618 0.084514 0.050606 2.14827 1.8697 5.27762 
0.018377 0.08411 0.051275 2.16229 1.92549 5.25257 
0.017051 0.08507 0.051446 2.66538 1.95701 6.15459 
0.016202 0.086306 0.05154 2.84064 1.0261 5.16822 
0.015256 0.087484 0.051946 3.29885 0.600134 4.96989 
0.014362 0.088432 0.05247 3.3749 0.679672 4.9104 
0.013547 0.089404 0.052858 2.57836 0.967758 4.16085 
0.012351 0.089542 0.053495 2.60049 1.49043 5.17962 
0.010971 0.089661 0.054045 2.02888 1.89953 5.30567 
0.024065 0.083841 0.048518 3.31052 0.886709 4.91756 
0.025116 0.083159 0.047846 4.26939 0.732013 5.49381 
0.022913 0.083147 0.049405 3.03443 1.024 5.06613 
0.03786 0.10923 0.019924 5.95148 3.50079 1.14359 
0.03837 0.108059 0.020709 4.30772 2.39899 0.827708 
0.039087 0.106743 0.02068 5.2955 2.65162 0.948279 
0.034987 0.113836 0.018581 4.83371 3.52424 0.451559 
0.035816 0.112665 0.018624 4.90005 3.42484 0.497369 
0.036711 0.11138 0.018529 4.93565 3.36157 0.563861 
0.037561 0.110125 0.018569 5.01883 3.20951 0.667904 
0.040221 0.10333 0.022481 5.44785 2.15916 1.27974 
0.039944 0.104501 0.021528 5.44224 2.29008 1.06108 
0.040401 0.102246 0.023428 4.51349 1.72764 1.27322 
0.040726 0.100131 0.02489 6.1728 2.41164 2.24646 
0.040889 0.100915 0.023505 5.3835 2.10576 1.59442 
0.040924 0.098756 0.025778 5.22543 2.02298 2.14298 
0.041003 0.097324 0.026852 5.214 1.86989 2.30352 
0.039709 0.105491 0.020421 5.41262 2.42135 0.914117 
0.004599 0.092555 0.054596 1.59269 2.2608 5.31726 
0.003554 0.093697 0.054427 1.59248 2.44469 5.23174 
0.002619 0.094933 0.054069 1.44256 2.95086 5.00502 
0.005566 0.09135 0.054814 1.45319 2.30134 5.34284 
0.006511 0.090219 0.055066 1.31952 2.38178 5.34522 
0.008842 0.088811 0.055053 1.62475 1.89526 5.44524 
0.010222 0.088612 0.054686 2.00664 1.55019 5.41836 
0.007421 0.089086 0.055342 1.42622 2.16075 5.40833 
0.001185 0.094971 0.054411 1.04939 2.86178 5.14628 
-0.006207 0.10278 0.044332 -0.108496 2.20863 4.39216 
-0.007608 0.10318 0.044135 -0.287941 2.26227 6.49341 
-0.007205 0.104477 0.043967 -0.377603 0.553725 5.95717 
-0.006938 0.108749 0.04338 -0.295693 1.72056 5.73181 
-0.007528 0.107269 0.043696 -0.51303 1.04077 5.87572 
-0.008106 0.105748 0.043813 -0.576666 0.572123 5.94228 
-0.006958 0.102108 0.044805 -0.065753 3.756 4.63058 
-0.002734 0.09844 0.051543 0.055733 4.98356 3.33629 
-0.001417 0.0966 0.053691 0.340007 3.83366 4.57051 
-0.002651 0.096914 0.053448 0.074528 4.12578 4.33013 
-0.003126 0.09771 0.052568 -0.006533 3.90088 3.11663 
-0.003799 0.099055 0.050564 -0.063832 5.17527 3.02656 
-0.004941 0.099545 0.049634 -0.109214 5.35819 2.68435 
-0.004649 0.100139 0.048296 -0.072613 5.52822 2.3295 
-0.00579 0.100554 0.047262 -0.079184 5.53741 2.30751 
-0.006762 0.100983 0.046209 -0.109268 5.33007 2.71718 
-0.007715 0.101377 0.045525 -0.155662 4.66908 3.6891 
-0.000193 0.094804 0.054719 0.686735 2.73826 5.27951 
-0.001186 0.095583 0.054373 0.393083 2.64161 4.2209 
-0.007815 0.10989 0.042934 -0.399455 2.0142 5.63372 
-0.007275 0.111257 0.042425 -0.266695 2.38163 5.49662 
-0.007849 0.113573 0.041255 -0.41117 2.73044 5.32608 
-0.007263 0.11482 0.04065 -0.437182 2.85506 5.25731 
-0.008215 0.112315 0.04187 -0.41306 2.63362 5.37336 
-0.008221 0.115733 0.040042 -0.544097 2.99697 5.16865 
-0.007549 0.116933 0.039404 -0.557824 3.08508 5.11448 
-0.006862 0.118043 0.038791 -0.600329 3.24533 5.00953 
-0.006028 0.119072 0.038201 -0.598327 3.43721 4.88005 
-0.005283 0.120113 0.037535 -0.471692 2.98355 3.9838 
0.003874 0.127498 0.029148 0.155546 5.04931 3.237 
0.001655 0.126962 0.030094 0.122297 4.98502 3.3341 
0.002434 0.127525 0.029176 0.1287 4.21425 2.68736 
0.004434 0.128291 0.027868 0.146116 5.15179 3.06835 
-0.005608 0.121078 0.036755 -0.587626 3.70117 4.68449 
-0.004525 0.121833 0.036275 -0.411706 3.92487 4.5121 
-0.00361 0.122693 0.03553 -0.096992 3.57437 3.48436 
0.000111 0.126365 0.030986 0.044546 5.67139 4.10031 
-0.003529 0.123635 0.03445 -0.045116 5.4168 4.4271 
-0.002703 0.124457 0.033374 -0.02829 4.70539 3.7211 
-0.002033 0.125346 0.032291 -0.101752 4.70095 3.72512 
-0.001464 0.1262 0.031199 -0.091291 4.81889 3.57177 
0.017834 0.127093 0.021708 2.449 5.29581 1.39151 
0.019139 0.126507 0.021781 2.3148 5.34658 1.42665 
0.020536 0.125875 0.021884 2.37223 5.32291 1.42015 
0.016489 0.12773 0.021758 2.53891 5.2618 1.36417 
0.02145 0.125714 0.020813 2.63222 5.27542 1.08502 
0.015116 0.128385 0.021756 2.36326 5.35054 1.3266 
0.012759 0.128998 0.022911 1.86114 5.48343 1.56322 
0.013676 0.129005 0.02164 2.0774 5.46858 1.32281 
0.009335 0.129177 0.025175 1.05224 5.51081 2.11595 
0.010501 0.129343 0.023998 1.35885 5.55293 1.80688 
0.011293 0.129514 0.022715 1.55086 5.5865 1.53009 
0.004901 0.128963 0.026638 0.19247 5.32803 2.74663 
0.006438 0.129062 0.026297 0.386429 5.39408 2.58839 
0.006772 0.129591 0.024997 0.495482 5.59247 2.10147 
0.00804 0.129613 0.024565 0.738855 5.62506 1.9347 
0.024841 0.123779 0.019607 3.51214 4.81322 0.68826 
0.023577 0.124633 0.019774 3.28694 4.96956 0.691273 
0.022167 0.125552 0.01948 3.44481 6.03297 0.818959 
0.025553 0.123425 0.018139 3.61871 4.75947 0.480578 
0.026727 0.122501 0.018007 3.79244 4.62524 0.46386 
0.02795 0.121467 0.018006 3.91625 4.52381 0.438245 
0.029219 0.120332 0.018055 4.04098 4.41492 0.415171 
0.030467 0.119149 0.018127 4.89517 4.98057 0.464922 
0.031684 0.117949 0.017648 4.36783 4.09619 0.360049 
0.032739 0.11679 0.017493 4.52868 3.92035 0.334429 
0.03363 0.115746 0.017213 4.66619 3.75871 0.299105 
0.034147 0.114987 0.01835 3.94953 3.04619 0.338311 
0.037333 0.091047 0.036329 4.09054 0.62941 2.80196 
0.036645 0.090344 0.037453 5.63188 0.707487 4.08881 
0.038553 0.091742 0.034278 5.05975 0.897097 3.09266 
0.03809 0.090767 0.035254 4.99786 0.676065 3.24579 
0.036024 0.089449 0.038411 4.75496 0.382369 3.63191 
0.035274 0.088727 0.039439 4.6632 0.212248 3.7611 
0.034608 0.087667 0.040267 4.50792 -0.042943 3.95039 
0.033917 0.086481 0.040958 4.2019 -0.283295 4.26013 
0.033197 0.085285 0.041516 3.79839 -0.275939 4.61945 
0.032105 0.085631 0.042311 3.20432 -0.217555 5.05912 
0.039103 0.092555 0.03308 5.13708 1.05449 2.90882 
0.03958 0.093383 0.031892 5.16141 1.11746 2.84357 
0.040048 0.094215 0.030687 5.1683 1.22553 2.78755 
0.040452 0.09511 0.029504 5.18432 1.39438 2.67512 
0.029952 0.084985 0.043545 3.25936 0.178791 5.02445 
0.031219 0.084551 0.04281 3.10223 0.105127 5.12884 
0.029046 0.084172 0.044249 3.77684 0.38852 4.62882 
0.028032 0.084651 0.045172 4.1301 0.355783 4.33762 
0.04095 0.095946 0.027996 6.09342 1.8896 2.87616 
0.027229 0.08375 0.046016 4.05986 0.330837 4.40344 
0.026418 0.082879 0.04681 3.94606 0.365729 4.50073 
0.020693 0.083529 0.050471 2.44725 1.432 5.27961 
0.021728 0.082624 0.05017 2.75307 1.00536 5.22924 
0.019442 0.083094 0.051164 2.4084 1.54696 5.2648 
0.018185 0.082632 0.051863 2.20893 1.62621 5.32975 
0.017229 0.083706 0.051866 1.67279 1.52707 4.45691 
0.015629 0.085071 0.052072 2.6079 1.0951 5.2681 
0.016023 0.083799 0.052273 2.05778 1.6263 5.38999 
0.014975 0.086267 0.052249 2.59384 0.504043 4.23666 
0.013843 0.087061 0.052956 3.84602 0.397445 5.83169 
0.0131 0.088258 0.053347 3.10076 0.762969 5.06661 
0.011734 0.088468 0.054075 2.57508 1.13531 5.27772 
0.02393 0.082482 0.048851 3.41607 0.716083 4.87547 
0.025718 0.081975 0.047504 3.25904 0.355195 3.77176 
0.024732 0.081617 0.048372 3.70034 0.464782 4.6928 
0.022712 0.081708 0.049761 3.09412 0.606942 5.09649 
0.038336 0.108865 0.018436 5.16847 2.95784 0.704067 
0.038738 0.107837 0.019423 5.22827 2.80037 0.89673 
0.039444 0.106511 0.019198 5.36683 2.55204 0.816436 
0.034568 0.114553 0.0171 4.78329 3.60932 0.288737 
0.035436 0.113359 0.017217 4.86649 3.49545 0.302884 
0.036308 0.112123 0.017234 4.91308 3.42835 0.311597 
0.037184 0.110872 0.01716 4.94656 3.37836 0.317008 
0.037985 0.109675 0.017146 5.07182 3.17977 0.349591 
0.040829 0.101978 0.022137 5.45646 2.14408 1.26969 
0.040602 0.103128 0.021042 5.47489 2.2148 1.05391 
0.040353 0.104192 0.019978 5.45703 2.31845 0.915329 
0.041457 0.099661 0.0233 5.34239 2.20744 1.59686 
0.041494 0.098687 0.024411 5.27653 2.12082 1.90447 
0.04138 0.100664 0.022021 5.41619 2.22661 1.29882 
0.041579 0.097404 0.025464 5.24268 1.94964 2.16684 
0.041614 0.096054 0.026483 5.25609 1.69992 2.33655 
0.040081 0.105215 0.018841 5.4283 2.42498 0.805972 
0.00403 0.091337 0.055209 1.27603 2.04279 5.49268 
0.003046 0.092541 0.055012 1.3035 2.00571 5.49974 
0.002097 0.093781 0.054775 1.22594 2.28108 5.40179 
0.004948 0.090146 0.055462 1.18005 2.22239 5.44426 
0.005853 0.089024 0.055749 1.19688 2.19552 5.45092 
0.009464 0.087382 0.055245 2.44751 1.15916 6.43087 
0.008082 0.08773 0.055636 1.72548 1.54482 5.52144 
0.010995 0.087495 0.054592 2.51714 0.696994 5.38634 
0.00674 0.088038 0.05592 1.17351 1.54224 4.60271 
0.000625 0.093696 0.055085 0.906445 2.1921 5.50501 
-0.008382 0.102297 0.044589 -0.296764 3.54875 4.76365 
-0.009154 0.103127 0.044077 -0.329386 2.02233 5.57373 
-0.008718 0.104261 0.043877 -0.44424 0.821295 5.91851 
-0.008396 0.108475 0.043334 -0.640094 1.52044 5.76086 
-0.00903 0.10703 0.043551 -0.75821 0.961743 5.86856 
-0.009654 0.10559 0.043652 -0.636265 0.737455 5.91819 
-0.004162 0.098253 0.051817 -0.082505 4.90695 3.4415 
-0.002682 0.095653 0.054431 0.272974 3.88139 5.80111 
-0.003807 0.096397 0.053904 0.017959 3.18772 3.83995 
-0.004473 0.097293 0.05303 -0.117293 5.14961 4.71865 
-0.00522 0.098819 0.050901 -0.155601 5.10428 3.14466 
-0.006383 0.099339 0.049954 -0.265605 5.27782 2.82621 
-0.00613 0.099978 0.048619 -0.185079 5.48215 2.42763 
-0.007252 0.100443 0.047421 -0.326239 5.49183 2.38833 
-0.008285 0.100853 0.046334 -0.399364 5.2694 2.80593 
-0.009224 0.101332 0.045455 -0.601674 5.30986 4.42065 
-0.000918 0.093569 0.055348 0.67068 2.20493 5.53422 
-0.001866 0.094625 0.05497 0.436156 2.7169 5.32385 
-0.009294 0.109657 0.04287 -0.68693 1.85934 5.65882 
-0.008706 0.110951 0.042464 -0.518982 2.2844 5.51779 
-0.009477 0.113229 0.041277 -0.67214 2.76037 5.28202 
-0.008892 0.114465 0.040696 -0.621748 2.85979 5.23463 
-0.009561 0.111984 0.041906 -0.567355 2.14 4.47921 
-0.009746 0.115386 0.040057 -0.817964 2.96807 5.14714 
-0.009079 0.116744 0.039346 -0.691626 3.11589 5.07878 
-0.008519 0.117902 0.038682 -0.655926 3.26067 4.99256 
-0.00767 0.119025 0.038029 -0.62598 3.44546 4.87037 
-0.006779 0.120072 0.03737 -0.626738 3.59076 4.76543 
0.002987 0.12816 0.028138 0.124549 5.13162 3.10466 
0.000419 0.127165 0.029818 0.051504 4.18224 2.73787 
0.001175 0.127878 0.028668 0.101176 5.96707 3.65659 
0.003372 0.12882 0.026979 0.109526 5.27455 2.85412 
-0.007076 0.121139 0.036505 -0.680747 3.75989 4.62428 
-0.005978 0.122107 0.035857 -0.606608 3.96377 4.45833 
-0.004892 0.122942 0.035198 -0.353402 4.32755 4.1268 
-0.000983 0.126999 0.030086 -0.033569 4.98436 3.33611 
-0.005209 0.123829 0.034137 -0.289908 4.66782 3.75216 
-0.004207 0.124445 0.033365 -0.15427 4.77609 3.62719 
-0.003466 0.125274 0.032323 -0.20563 4.76795 3.63397 
-0.002993 0.126098 0.031264 -0.256301 4.81733 3.56558 
-0.002448 0.126895 0.030198 -0.213659 4.96341 3.35858 
0.018738 0.127025 0.020318 2.38834 5.37376 1.18235 
0.017379 0.127633 0.020406 2.51412 5.31075 1.20935 
0.019999 0.126435 0.020564 2.38671 5.3796 1.1562 
0.016027 0.128264 0.020481 2.46126 5.3443 1.16726 
0.02087 0.126218 0.019588 2.17769 4.4403 0.717295 
0.014624 0.128873 0.020516 2.2595 5.43938 1.13636 
0.012232 0.129504 0.021673 1.73955 5.58191 1.32997 
0.013089 0.12951 0.020326 2.26007 6.50131 1.25337 
0.009216 0.129653 0.0239 0.843233 4.69906 1.46964 
0.009878 0.12987 0.022672 1.15584 5.69528 1.47427 
0.010512 0.130037 0.021366 1.53208 6.67044 1.4488 
0.005326 0.129555 0.025352 0.280114 5.5422 2.26375 
0.003829 0.129458 0.0257 0.118918 5.4832 2.4158 
0.005713 0.13001 0.023992 0.348575 5.71788 1.77266 
0.007047 0.130039 0.023542 0.554559 5.73928 1.64799 
0.008354 0.130038 0.022982 0.790997 5.74717 1.52188 
0.024341 0.124275 0.018425 3.41051 4.90961 0.498444 
0.023135 0.125063 0.018631 2.67673 4.19858 0.433991 
0.022289 0.12565 0.017852 3.05288 5.14447 0.439961 
0.02106 0.126297 0.018296 2.75051 5.29664 0.586085 
0.024857 0.124029 0.017019 3.48194 4.87282 0.338717 
0.026147 0.123082 0.01667 4.32118 5.49228 0.3777 
0.027403 0.122045 0.016761 3.87244 4.56916 0.34557 
0.028694 0.120913 0.016847 3.99403 4.46316 0.348547 
0.029945 0.11976 0.016847 4.12733 4.34047 0.34228 
0.031034 0.118704 0.016629 4.27941 4.19263 0.316687 
0.032127 0.117576 0.016272 4.44478 4.01948 0.271669 
0.033128 0.116441 0.015982 4.59691 3.84765 0.232449 
0.034077 0.115275 0.015759 4.72682 3.68894 0.205912 
0.037496 0.089708 0.036319 4.94198 0.4201 3.37295 
0.036834 0.088872 0.037339 4.87696 0.189882 3.4866 
0.038865 0.09022 0.034128 5.09424 0.624204 3.10445 
0.039388 0.091101 0.033023 5.19735 0.797225 2.88598 
0.038283 0.089249 0.035194 4.99268 0.40543 3.3001 
0.036137 0.088027 0.038314 4.81635 0.002664 3.57596 
0.035425 0.087243 0.039242 4.72997 -0.152053 3.68551 
0.034766 0.086158 0.039987 4.57261 -0.292708 3.8699 
0.034108 0.084992 0.04062 4.33993 -0.279448 4.12571 
0.033409 0.083822 0.041264 3.98972 -0.059492 4.46178 
0.032348 0.084147 0.042089 3.46663 -0.021983 4.88688 
0.039897 0.091868 0.031814 5.2351 0.890212 2.79239 
0.040361 0.09269 0.030689 5.22158 0.963844 2.79243 
0.040832 0.093527 0.029501 5.22975 1.10333 2.72298 
0.041139 0.094502 0.028468 4.37408 1.10137 2.15188 
0.030264 0.083567 0.043438 3.2692 0.427006 5.0077 
0.031507 0.083079 0.042714 3.32287 0.353859 4.97683 
0.029344 0.08268 0.044171 3.62603 0.546048 4.73731 
0.028275 0.083182 0.045055 4.05448 0.384546 4.40354 
0.041683 0.094674 0.027221 5.30394 1.37026 2.44129 
0.02748 0.082243 0.045869 4.06703 0.277429 4.40144 
0.026669 0.081383 0.046681 4.07244 0.227819 4.39939 
0.02047 0.082074 0.050899 2.68586 1.05777 5.2554 
0.021513 0.081228 0.050487 2.90662 0.598834 5.20808 
0.019231 0.081661 0.05164 2.62783 1.18587 5.25552 
0.017935 0.08122 0.052358 2.34545 1.3063 5.35626 
0.016801 0.082388 0.052453 2.25058 1.95507 6.33118 
0.014611 0.084198 0.052731 2.42909 0.974919 5.37229 
0.014134 0.085497 0.052851 2.99788 0.415353 5.16971 
0.015153 0.082893 0.052836 1.89385 1.49091 5.48851 
0.012986 0.085921 0.053529 3.11719 0.069686 5.12466 
0.01241 0.087216 0.053874 3.01723 0.380904 5.16053 
0.023641 0.080951 0.049222 3.37807 0.319921 4.94274 
0.025653 0.080589 0.047657 3.97743 0.144262 4.4853 
0.024602 0.080231 0.048564 3.68727 0.05468 4.72231 
0.022391 0.080166 0.050057 3.65066 0.156558 5.96426 
0.038733 0.108434 0.016965 5.20316 2.95502 0.402749 
0.039124 0.107508 0.018011 5.30274 2.7247 0.654058 
0.039777 0.106239 0.017667 5.39109 2.54821 0.655267 
0.034977 0.114082 0.015806 4.8291 3.55495 0.194356 
0.035872 0.112834 0.015873 4.90036 3.45672 0.184705 
0.036759 0.111555 0.015835 4.93467 3.40908 0.160927 
0.037631 0.110294 0.015731 4.9893 3.32787 0.151741 
0.038403 0.109088 0.015725 4.24682 2.63281 0.162787 
0.041215 0.101736 0.020755 5.46409 2.23281 1.0711 
0.040978 0.102834 0.019567 5.4842 2.25227 0.920812 
0.040727 0.103881 0.018449 5.46905 2.32523 0.821781 
0.041985 0.099416 0.021702 5.42839 2.22865 1.23993 
0.042111 0.098396 0.022869 5.39805 2.13754 1.4981 
0.04217 0.097321 0.02403 5.36967 1.9544 1.81299 
0.04184 0.100366 0.020497 5.45419 2.26223 1.0594 
0.042228 0.096126 0.024997 5.36315 1.70753 2.06502 
0.042264 0.094801 0.025851 5.38829 1.37127 2.24351 
0.040456 0.104855 0.017333 5.43011 2.45074 0.707434 
0.002511 0.09125 0.055563 1.06965 1.84112 5.60738 
0.00346 0.090036 0.055797 0.980281 2.00731 5.56503 
0.001547 0.092489 0.055345 1.0479 1.88627 5.59699 
0.004433 0.08881 0.056106 0.946643 2.08008 5.54475 
0.005494 0.087577 0.056355 1.34985 1.94397 6.57404 
0.010393 0.086406 0.054959 2.08931 0.269164 4.52821 
0.008395 0.086347 0.055807 2.04033 0.633111 5.58891 
0.009451 0.085582 0.05543 2.38938 0.139524 5.48922 
0.006989 0.086824 0.056194 1.59694 1.14941 5.6517 
0.011663 0.086116 0.054341 2.87366 0.092364 5.25752 
1e-06 0.092398 0.055637 0.838048 1.8297 5.64979 
-0.00978 0.102407 0.044408 -0.449744 3.32812 4.90323 
-0.010655 0.103111 0.044011 -0.368701 1.9874 5.61388 
-0.010324 0.104239 0.043767 -0.42266 1.06846 5.88242 
-0.009893 0.108284 0.043176 -0.806539 1.38842 5.77693 
-0.010563 0.106873 0.043361 -0.74508 1.02265 5.86198 
-0.011268 0.105466 0.043502 -0.57565 0.94707 5.8955 
-0.005498 0.097984 0.052149 -0.187741 4.80457 3.57627 
-0.003348 0.094489 0.055138 0.351009 2.77469 5.30314 
-0.004235 0.095308 0.05472 0.135902 3.27546 5.01124 
-0.005203 0.096193 0.054065 -0.07211 3.84263 4.59394 
-0.005976 0.097038 0.053258 -0.2037 4.31891 4.14188 
-0.006604 0.098552 0.051231 -0.316522 5.02359 3.26006 
-0.007778 0.099126 0.050152 -0.552612 5.20269 2.92233 
-0.00755 0.099814 0.048815 -0.476422 5.42158 2.51768 
-0.008658 0.100191 0.047681 -0.690305 5.42379 2.46628 
-0.009716 0.100502 0.046692 -0.846877 5.23935 2.77103 
-0.010676 0.100818 0.045813 -0.957115 4.80626 3.39815 
-0.010622 0.101572 0.045015 -0.66414 3.35403 3.62727 
-0.001571 0.09221 0.055911 0.695372 1.78463 5.68164 
-0.002473 0.093328 0.055614 0.550007 2.25497 5.5249 
-0.010199 0.110862 0.042315 -0.79291 2.24367 5.50234 
-0.010737 0.109577 0.0427 -0.804076 1.8013 5.66101 
-0.010861 0.112316 0.041535 -1.07921 3.09638 6.18135 
-0.010557 0.114033 0.040671 -1.12795 3.34245 6.04368 
-0.010404 0.116503 0.039284 -0.798803 2.55894 4.21832 
-0.011157 0.115382 0.039781 -1.12694 2.94024 5.10626 
-0.010225 0.117713 0.03855 -1.04177 3.76187 5.80795 
-0.009244 0.118871 0.037929 -0.733721 3.43134 4.86467 
-0.008304 0.120078 0.037164 -0.784738 4.24834 5.50618 
0.001829 0.128569 0.027482 0.049657 5.24674 2.90618 
-0.00042 0.127783 0.028848 -0.011249 5.12842 3.11221 
0.000262 0.128455 0.027699 -0.027132 5.25762 2.88551 
0.002331 0.129283 0.026114 0.004525 5.43168 2.53495 
-0.008328 0.121409 0.036082 -0.75295 3.86606 4.52405 
-0.007389 0.122293 0.035474 -0.733474 4.03008 4.37917 
-0.006341 0.123119 0.03484 -0.576213 4.33504 4.09742 
-0.001911 0.127648 0.029041 -0.163841 5.12792 3.10738 
-0.006805 0.123978 0.033783 -0.550421 4.67038 3.71648 
-0.005821 0.124623 0.03303 -0.371012 4.84591 3.51473 
-0.004868 0.125202 0.032321 -0.281067 4.04001 2.92948 
-0.004514 0.12595 0.031309 -0.446386 4.87835 3.46047 
-0.003958 0.126752 0.030261 -0.4946 4.95964 3.33253 
-0.003428 0.127504 0.029147 -0.429632 5.11938 3.09397 
0.018224 0.127526 0.019011 2.49527 5.37198 0.941557 
0.019649 0.126896 0.018924 2.90372 6.29016 0.972742 
0.016849 0.128157 0.019121 2.48647 5.37568 0.944015 
0.015458 0.128763 0.019222 2.36352 5.43615 0.917152 
0.014069 0.129322 0.019385 1.80567 4.59574 0.767915 
0.011696 0.129904 0.02056 1.32923 4.73011 0.910204 
0.012119 0.13001 0.019197 1.66552 5.70062 0.834639 
0.013236 0.129766 0.018449 1.93177 5.63134 0.710011 
0.008905 0.13028 0.02164 0.916963 5.78397 1.29617 
0.010678 0.130303 0.019763 1.36406 5.75985 0.967393 
0.009317 0.130487 0.020309 1.0476 5.80073 1.10844 
0.004262 0.12996 0.024348 0.149442 5.6898 1.88493 
0.002805 0.129854 0.024713 -0.007899 5.6542 1.99066 
0.004607 0.13037 0.022898 0.190724 5.79462 1.53767 
0.005984 0.130408 0.022463 0.408 5.80375 1.46112 
0.007362 0.130397 0.022004 0.632846 5.80349 1.37997 
0.02359 0.124874 0.017323 3.28344 5.00765 0.360214 
0.022667 0.125522 0.0164 3.14329 5.10117 0.288405 
0.021376 0.126255 0.016836 2.88249 5.24692 0.362928 
0.020051 0.126891 0.017333 2.63092 5.36846 0.491528 
0.023931 0.12473 0.015942 3.33823 4.97859 0.245634 
0.025134 0.123909 0.015624 3.52199 4.85054 0.230514 
0.02617 0.123149 0.015161 3.07517 3.93766 0.175705 
0.027148 0.122346 0.015394 3.82788 4.61307 0.24423 
0.028238 0.121401 0.015583 3.94272 4.51395 0.274473 
0.029383 0.120375 0.015597 4.06134 4.40673 0.283363 
0.030502 0.119327 0.015398 4.20532 4.27017 0.265166 
0.031571 0.118252 0.015107 4.36704 4.10606 0.235826 
0.032577 0.117149 0.014774 4.52936 3.92929 0.195749 
0.033541 0.116014 0.014505 4.66304 3.77104 0.162191 
0.0345 0.114793 0.014305 4.77996 3.62276 0.14683 
0.037632 0.088271 0.036228 4.90647 0.168497 3.44695 
0.036928 0.087385 0.037217 4.83982 -0.034998 3.54484 
0.039625 0.089616 0.032952 5.17519 0.6676 2.95857 
0.039053 0.088709 0.034081 5.04861 0.490239 3.20054 
0.040165 0.090407 0.031744 5.24332 0.799269 2.80447 
0.038402 0.087728 0.035162 4.90808 0.279269 3.43645 
0.036247 0.086527 0.038107 4.79307 -0.169545 3.60462 
0.035573 0.085819 0.038947 3.93591 -0.2099 3.07597 
0.035052 0.084699 0.039524 4.60728 -0.21275 3.83375 
0.034344 0.083574 0.040301 4.43542 -0.026825 4.03421 
0.03363 0.082409 0.041085 4.14751 0.165473 4.31874 
0.032608 0.082686 0.04193 3.69767 0.234146 4.71375 
0.040719 0.091135 0.030502 5.25358 0.821543 2.77887 
0.041121 0.092065 0.029457 5.27418 0.877859 2.72125 
0.041621 0.093126 0.028101 6.21173 1.20488 2.98747 
0.030576 0.082127 0.043403 3.31108 0.531297 4.97418 
0.031758 0.081587 0.042671 3.50635 0.38602 4.84864 
0.029689 0.081229 0.044111 3.50692 0.493533 4.83853 
0.028508 0.081687 0.044983 3.85479 0.411628 4.57366 
0.042234 0.093388 0.026648 5.42566 1.05308 2.32777 
0.027641 0.080671 0.045799 4.62276 0.154306 5.24582 
0.026599 0.080012 0.046784 4.0913 -0.072791 4.38533 
0.020188 0.08065 0.051308 2.91905 0.67276 5.19009 
0.021163 0.079932 0.050786 2.56367 0.198565 4.28498 
0.018957 0.080304 0.052041 2.79928 0.75169 5.24332 
0.017593 0.079714 0.052824 2.89634 0.86554 6.29602 
0.016732 0.080833 0.052948 1.97971 1.3819 5.48302 
0.015703 0.081709 0.053025 1.42708 1.34945 4.59706 
0.013313 0.084455 0.053355 2.84039 0.343564 5.26359 
0.013746 0.083085 0.053306 2.30739 0.978863 5.43224 
0.01429 0.08177 0.05342 1.7781 1.42887 5.54412 
0.012045 0.084732 0.054085 2.93217 -0.028718 5.23058 
0.023427 0.079517 0.049393 3.35705 -0.129755 4.96607 
0.02548 0.079147 0.047787 4.62766 -0.384979 5.22971 
0.024417 0.078956 0.048668 3.03732 -0.299802 3.95234 
0.022423 0.078587 0.049998 3.24844 -0.334934 5.02998 
0.021234 0.078698 0.050747 3.19254 -0.141542 5.07521 
0.039384 0.107305 0.016399 5.3115 2.75035 0.447923 
0.039017 0.108132 0.014995 6.03171 3.53056 0.335406 
0.040078 0.105934 0.016265 5.37013 2.61416 0.559527 
0.035353 0.113622 0.014539 4.86959 3.50174 0.147915 
0.036301 0.112272 0.01457 4.93023 3.41644 0.140205 
0.037205 0.110958 0.014422 4.95178 3.3851 0.13803 
0.038099 0.10964 0.014256 5.85056 3.83326 0.237993 
0.041573 0.101491 0.01935 5.4649 2.29078 0.940379 
0.04133 0.102568 0.018036 5.47326 2.30507 0.852654 
0.041123 0.103469 0.016885 5.46265 2.36286 0.755702 
0.042474 0.099001 0.020055 5.5138 2.153 0.975278 
0.042554 0.098199 0.021289 5.50679 2.09034 1.13385 
0.042679 0.09708 0.022586 5.50213 1.92992 1.40005 
0.042798 0.095965 0.023466 5.50398 1.69453 1.67204 
0.042206 0.100117 0.018995 5.5031 2.2141 0.898329 
0.042797 0.094869 0.024421 5.49791 1.39149 1.94612 
0.04278 0.093549 0.025226 5.50298 1.05994 2.13817 
0.040776 0.10455 0.015864 5.42017 2.49129 0.638837 
0.000958 0.091195 0.055853 0.88103 1.67105 5.69295 
0.001898 0.089964 0.056065 0.802202 1.76249 5.6758 
0.002861 0.088782 0.056336 0.69802 1.92539 5.63757 
0.00382 0.08763 0.056614 0.784306 1.74299 5.68218 
0.00591 0.085973 0.056614 1.40821 0.754489 5.76477 
0.004677 0.086561 0.056771 0.871488 1.01862 4.80781 
0.010761 0.085043 0.054799 2.68484 -0.117265 5.36017 
0.007276 0.085483 0.05627 1.82694 0.237623 5.695 
0.008401 0.08465 0.055851 2.53609 -0.319212 6.50389 
0.009781 0.084116 0.055214 2.44006 -0.364196 5.4672 
-0.000623 0.091069 0.056108 0.731201 1.52075 5.75603 
-0.011285 0.102258 0.044351 -0.614206 3.09502 5.05143 
-0.01208 0.102893 0.043986 -0.389658 1.75633 4.64301 
-0.012045 0.104164 0.043663 -0.565043 1.48548 6.81153 
-0.01138 0.10816 0.042993 -0.774885 1.37924 5.78485 
-0.012119 0.10679 0.043192 -0.703804 1.13469 5.84772 
-0.012894 0.105515 0.043336 -0.679563 1.09213 5.85914 
-0.006903 0.097727 0.05238 -0.371341 4.70984 3.68699 
-0.004887 0.094148 0.055406 0.236599 2.82184 5.28589 
-0.003951 0.093138 0.055841 0.475342 2.30412 5.50782 
-0.005713 0.095069 0.054894 -0.011758 3.29627 5.00153 
-0.006653 0.095935 0.054229 -0.215596 3.78415 4.64215 
-0.00745 0.096714 0.05349 -0.386524 4.2289 4.21929 
-0.007989 0.098298 0.051447 -0.569233 4.9478 3.33658 
-0.009142 0.098752 0.050463 -0.873902 5.11747 2.99836 
-0.008956 0.099511 0.049097 -0.828178 5.33205 2.6143 
-0.010069 0.099796 0.048054 -1.00221 5.35244 2.5159 
-0.011254 0.100007 0.047072 -1.31576 6.12491 3.11051 
-0.01199 0.100519 0.04587 -0.928707 4.12424 2.64899 
-0.012097 0.101092 0.045085 -1.15825 4.78658 4.89642 
-0.00225 0.090844 0.056359 0.661098 1.40063 5.79505 
-0.00316 0.091944 0.056176 0.620286 1.73264 5.70496 
-0.011533 0.110815 0.042126 -0.912819 2.2964 5.461 
-0.012118 0.109413 0.042558 -0.856545 1.82188 5.64489 
-0.012366 0.111809 0.041496 -1.09173 2.64978 5.26952 
-0.011834 0.113138 0.04091 -1.12905 2.84986 5.15605 
-0.012012 0.114436 0.040119 -1.21633 2.93379 5.08989 
-0.011704 0.116629 0.038925 -1.18021 3.05148 5.02731 
-0.012691 0.115561 0.039303 -1.31845 2.95654 5.05113 
-0.012008 0.117707 0.038187 -1.20519 3.1805 4.9396 
-0.010936 0.118681 0.037774 -0.984303 3.39211 4.84673 
-0.010004 0.119707 0.037192 -0.825236 3.60515 4.72268 
-0.009343 0.120711 0.036511 -0.637268 3.16168 3.8181 
0.00087 0.129077 0.026506 -0.082811 5.40649 2.59311 
-0.001317 0.12835 0.027854 -0.144799 5.27532 2.8484 
-0.000672 0.12894 0.026715 -0.162909 5.4125 2.57984 
0.001322 0.129678 0.025156 -0.121918 5.61109 2.10116 
-0.008874 0.122433 0.03507 -0.886549 4.1354 4.24952 
-0.00976 0.121642 0.035617 -0.912258 4.01041 4.36548 
-0.007849 0.123249 0.03444 -0.782769 4.37161 4.0281 
-0.002854 0.128209 0.027995 -0.347266 5.26952 2.84091 
-0.008274 0.124135 0.033316 -0.823479 4.71471 3.60434 
-0.007185 0.1248 0.032586 -0.639655 4.9416 3.33562 
-0.00609 0.125547 0.031654 -0.741506 5.81205 3.82009 
-0.005523 0.126441 0.030408 -0.795559 4.99452 3.2217 
-0.004961 0.127248 0.02927 -0.760404 5.08527 3.08748 
-0.004394 0.128009 0.028093 -0.623731 5.22623 2.87522 
0.017418 0.128099 0.017722 2.49305 5.41611 0.654233 
0.018761 0.127478 0.017603 2.55149 5.39434 0.609221 
0.016065 0.128688 0.017895 2.3966 5.46136 0.637911 
0.014619 0.129286 0.018055 2.23197 5.53044 0.634282 
0.012252 0.13017 0.017494 1.73168 5.7186 0.525167 
0.011015 0.13044 0.018251 1.49156 5.76618 0.705967 
0.013588 0.129777 0.016975 2.01603 5.63368 0.405493 
0.007788 0.130659 0.020613 0.734391 5.83109 1.19906 
0.009629 0.130678 0.018865 1.18053 5.81386 0.879573 
0.008148 0.13087 0.019257 0.842639 5.85423 0.994967 
0.003195 0.130268 0.023349 -0.010575 5.7809 1.60005 
0.001725 0.130105 0.023846 -0.15306 5.76507 1.64778 
0.004918 0.130729 0.02138 0.228543 5.85029 1.3037 
0.003508 0.130657 0.021815 -0.000526 5.84528 1.34537 
0.006328 0.130744 0.02092 0.471645 5.84608 1.25772 
0.023035 0.125357 0.014931 3.20083 5.07068 0.16966 
0.021756 0.126114 0.015362 2.98956 5.19655 0.207465 
0.020446 0.126806 0.015793 2.73029 5.33349 0.283429 
0.019149 0.127423 0.016083 2.62201 5.38414 0.355882 
0.024301 0.124534 0.014498 3.38524 4.95093 0.144615 
0.025499 0.1237 0.014066 3.56385 4.82358 0.126485 
0.02675 0.122736 0.013785 4.38875 5.45012 0.152262 
0.027794 0.121859 0.014147 3.2361 3.80797 0.150727 
0.028829 0.120957 0.014272 3.98675 4.47836 0.201386 
0.029891 0.119982 0.014184 4.12799 4.34872 0.200381 
0.030983 0.11892 0.013914 4.27749 4.20282 0.174651 
0.032035 0.117823 0.01358 4.44487 4.02545 0.152037 
0.03302 0.116695 0.013239 4.59802 3.85135 0.129775 
0.03398 0.11551 0.013022 4.72165 3.69981 0.110387 
0.034956 0.114232 0.012838 5.63079 4.15607 0.121347 
0.037685 0.086751 0.036191 4.80335 0.08229 3.59197 
0.036923 0.085768 0.037178 4.74444 -0.062018 3.67038 
0.040379 0.088916 0.031781 5.20115 0.794096 2.88115 
0.039786 0.088122 0.032988 5.09274 0.622557 3.10738 
0.039176 0.087194 0.034107 4.95411 0.433932 3.35139 
0.040936 0.089638 0.030517 5.25966 0.827705 2.76564 
0.038492 0.086192 0.035145 4.79168 0.265469 3.59849 
0.036073 0.084743 0.03824 5.49884 -0.145496 4.32756 
0.035274 0.083395 0.039217 4.63001 0.008847 3.81326 
0.034602 0.082189 0.040049 4.50732 0.160564 3.95385 
0.033932 0.081028 0.040847 4.29291 0.145341 4.1818 
0.032881 0.081265 0.041813 3.88097 0.252861 4.5632 
0.04151 0.090336 0.029202 6.19726 0.93104 3.1173 
0.041742 0.091607 0.028373 4.45548 0.677923 2.16361 
0.042288 0.091953 0.027091 5.44121 0.841972 2.37896 
0.030833 0.080621 0.043384 3.4137 0.34901 4.91959 
0.032016 0.080155 0.042571 3.66148 0.132608 4.74439 
0.029926 0.079646 0.044076 3.46224 0.122888 4.89203 
0.028872 0.080329 0.044802 3.66463 0.219614 4.73897 
0.04282 0.092176 0.025687 5.50635 0.876135 2.21602 
0.028201 0.079419 0.045351 3.117 -0.093346 3.90284 
0.027296 0.079011 0.04609 3.96065 -0.313215 4.48485 
0.026373 0.07865 0.046919 3.39035 -0.410338 3.64752 
0.019971 0.079201 0.051549 3.62959 0.194648 5.97437 
0.01874 0.079086 0.052282 2.44569 0.252762 4.34809 
0.017938 0.078108 0.052765 2.74777 -0.048917 5.31752 
0.016211 0.07963 0.053386 1.95003 0.91787 5.58877 
0.016763 0.078392 0.053307 2.2879 0.176986 5.52831 
0.015155 0.080555 0.053511 1.64643 1.3846 5.59822 
0.012429 0.083375 0.053905 2.62779 0.37454 5.36743 
0.012913 0.08193 0.053866 2.0833 0.93639 5.5318 
0.013613 0.080581 0.053927 1.61952 1.23713 5.6392 
0.011038 0.083625 0.054598 2.58954 -0.141947 5.40304 
0.023549 0.078026 0.0492 3.44956 -0.55618 4.87288 
0.025744 0.077605 0.047338 4.00001 -0.832788 4.38909 
0.02473 0.077782 0.048273 3.80172 -0.730454 4.57605 
0.022739 0.077004 0.049624 3.38851 -0.696287 4.8986 
0.021617 0.07734 0.050412 3.30495 -0.479034 4.98243 
0.020403 0.077651 0.051243 3.26824 -0.29767 5.02023 
0.039738 0.106822 0.014981 5.28479 2.80792 0.418385 
0.038845 0.108548 0.013508 4.23464 2.64357 0.261007 
0.039557 0.107328 0.013666 5.20953 2.95269 0.362731 
0.040393 0.105589 0.014858 4.4625 2.21121 0.432047 
0.03577 0.113085 0.013404 4.08512 2.88049 0.111166 
0.036634 0.111843 0.013191 4.9345 3.41015 0.14586 
0.037496 0.110608 0.012958 4.93061 3.41228 0.205267 
0.0383 0.109476 0.012534 4.97461 3.34202 0.275127 
0.041887 0.1013 0.017965 5.48296 2.27703 0.863602 
0.041797 0.102046 0.016447 6.38882 2.71137 0.909473 
0.041425 0.103245 0.015362 5.44758 2.42161 0.673625 
0.043105 0.097415 0.019819 6.51462 2.32428 1.06995 
0.042916 0.098378 0.018767 5.56012 2.08728 0.851039 
0.043005 0.096973 0.021289 4.63854 1.61549 0.926682 
0.043312 0.095634 0.021911 6.55303 1.95742 1.47277 
0.043357 0.094605 0.022889 5.60997 1.40501 1.57729 
0.04265 0.099425 0.017862 5.54044 2.15051 0.821855 
0.04327 0.093644 0.023852 4.64915 0.94562 1.57001 
0.043368 0.092365 0.024229 5.57457 0.930383 2.00699 
0.041 0.104438 0.014306 5.4012 2.55395 0.543278 
0.000347 0.089861 0.056294 0.66091 1.54038 5.75912 
0.001318 0.088631 0.056542 0.530021 1.71402 5.72324 
0.002329 0.087446 0.056832 0.502561 1.65094 5.74235 
0.003306 0.08623 0.057053 0.719451 1.13544 5.83268 
0.005826 0.084562 0.056692 1.57793 -0.156654 5.77467 
0.004506 0.085225 0.057003 1.14854 0.430611 5.85534 
0.00708 0.084172 0.056295 1.54316 -0.389925 4.73312 
0.008779 0.083275 0.05556 1.83059 -0.493339 4.62515 
0.007467 0.083016 0.056018 1.95535 -0.723894 5.62348 
0.010044 0.082563 0.054972 2.57742 -0.297579 6.49093 
-0.001181 0.089686 0.056497 0.589959 1.35661 5.81359 
-0.012771 0.10187 0.0444 -0.730211 2.92888 5.1512 
-0.013352 0.102938 0.04385 -0.597889 1.88031 5.64561 
-0.013744 0.104269 0.043477 -0.657921 1.32912 5.81023 
-0.012901 0.108058 0.042817 -0.845473 1.4458 5.75881 
-0.013756 0.106933 0.042951 -0.893858 1.25232 5.79653 
-0.014482 0.105632 0.043095 -0.859812 1.23179 5.80754 
-0.008257 0.09744 0.052566 -0.602679 4.63876 3.74856 
-0.006512 0.093765 0.055663 0.001001 3.24732 6.18874 
-0.005465 0.092942 0.056039 0.221845 1.95228 4.58614 
-0.00473 0.091828 0.056374 0.488009 1.73874 5.71528 
-0.007102 0.094902 0.054975 -0.183188 2.77113 4.14991 
-0.008212 0.095549 0.054431 -0.478852 4.28958 5.49856 
-0.008867 0.096528 0.053513 -0.637456 4.23223 4.18497 
-0.009366 0.097956 0.051659 -0.878727 4.85603 3.40134 
-0.010515 0.098214 0.050892 -1.14756 4.99994 3.10443 
-0.010275 0.099031 0.049552 -1.09072 5.21678 2.7496 
-0.011325 0.099288 0.048589 -1.22224 5.26598 2.59775 
-0.012495 0.099346 0.047862 -1.13202 4.37266 2.14099 
-0.012934 0.099783 0.046757 -1.32755 5.13184 2.79985 
-0.013338 0.100342 0.045646 -1.1448 4.72952 3.47459 
-0.01373 0.100984 0.044831 -0.88679 3.79981 4.5033 
-0.003961 0.090524 0.056621 0.684907 1.49704 6.80097 
-0.00269 0.089453 0.056704 0.567957 1.18437 5.85322 
-0.012981 0.110491 0.042004 -1.05513 2.31974 5.42572 
-0.013525 0.109192 0.0424 -0.852186 1.56183 4.66679 
-0.013979 0.111286 0.041406 -1.21962 2.64056 5.24572 
-0.013441 0.112513 0.04088 -1.24664 2.84657 5.13113 
-0.01308 0.113668 0.040306 -1.06136 2.45701 4.22305 
-0.013738 0.114649 0.039557 -1.34032 2.97765 5.03319 
-0.013251 0.11666 0.0385 -1.41833 3.03434 4.97663 
-0.014391 0.115636 0.038783 -1.44508 3.03832 4.96708 
-0.013702 0.117706 0.03772 -1.51145 3.17557 4.85781 
-0.012602 0.118698 0.037365 -1.29928 3.38678 4.77609 
-0.011577 0.119661 0.036918 -1.10173 3.6093 4.66038 
-0.010715 0.120684 0.036282 -0.96801 3.84609 4.49691 
-0.000147 0.129515 0.025468 -0.201039 5.58241 2.1703 
-0.002246 0.128816 0.026845 -0.290248 5.42058 2.5516 
-0.001629 0.129372 0.025667 -0.282826 5.57068 2.19468 
0.000252 0.129969 0.024149 -0.235974 5.75142 1.6814 
-0.010419 0.122556 0.034573 -1.114 4.26012 4.06971 
-0.009325 0.123321 0.034028 -1.00201 4.44412 3.89932 
-0.011187 0.121673 0.035254 -1.14282 4.12309 4.20149 
-0.003751 0.128685 0.026909 -0.481598 5.40078 2.56176 
-0.009673 0.124112 0.032961 -1.10603 4.77156 3.45244 
-0.008679 0.124956 0.031997 -1.1165 5.92102 3.5429 
-0.007535 0.125474 0.031422 -0.717814 4.265 2.50185 
-0.006941 0.126193 0.030367 -1.01158 5.06663 3.04566 
-0.00647 0.12698 0.029248 -1.04335 5.04808 3.06869 
-0.005879 0.12777 0.028122 -0.917616 5.15104 2.93208 
-0.005177 0.128509 0.026956 -0.725572 5.34408 2.61923 
0.016504 0.128622 0.016463 2.39348 5.4867 0.393973 
0.01785 0.128043 0.016264 2.51067 5.43255 0.402092 
0.015123 0.129195 0.016741 2.27195 5.53799 0.388944 
0.011155 0.130562 0.016612 1.59144 5.76619 0.443139 
0.012468 0.13021 0.015882 2.14633 6.65256 0.342996 
0.009897 0.130816 0.017349 1.29809 5.82271 0.615231 
0.014154 0.129633 0.015704 2.10467 5.61144 0.257179 
0.006723 0.13101 0.0194 0.541045 5.88165 1.04368 
0.008589 0.131 0.017971 0.818933 4.88783 0.642047 
0.007206 0.131204 0.017855 0.773362 6.89396 0.911479 
0.002134 0.130504 0.022359 -0.176384 5.83244 1.39115 
0.000661 0.130346 0.022755 -0.276226 5.82739 1.39729 
0.003855 0.130978 0.020267 0.021937 5.89194 1.12617 
0.005279 0.131027 0.019844 0.264277 5.89168 1.09353 
0.002407 0.130867 0.020732 -0.178804 5.88144 1.16705 
0.022147 0.125923 0.01388 3.06541 5.1562 0.095963 
0.023406 0.125156 0.013452 3.25122 5.0409 0.064604 
0.020836 0.126664 0.014301 2.8191 5.29217 0.136795 
0.019513 0.127315 0.014585 2.66666 5.3714 0.182006 
0.0182 0.12796 0.014775 2.55796 5.42137 0.22078 
0.024636 0.124331 0.013016 3.42695 4.9241 0.037528 
0.025859 0.123455 0.01265 3.60619 4.79352 0.020143 
0.027011 0.122553 0.012347 3.13742 3.89204 0.012006 
0.02801 0.121714 0.012752 4.53384 5.33167 0.088185 
0.029135 0.120731 0.012894 4.02702 4.44539 0.094532 
0.030275 0.119664 0.012817 4.18348 4.29844 0.099488 
0.031407 0.118528 0.012444 4.33761 4.14348 0.079217 
0.032347 0.117513 0.011986 4.49445 3.97292 0.056773 
0.033341 0.116346 0.011769 4.64111 3.80074 0.059763 
0.034308 0.115122 0.011582 4.75936 3.6524 0.052743 
0.035214 0.113913 0.011259 4.84152 3.54337 0.034682 
0.035928 0.112907 0.012099 4.89668 3.46535 0.098295 
0.037792 0.085241 0.03609 4.67997 0.126023 3.75044 
0.036952 0.084327 0.03713 4.64444 0.037911 3.79685 
0.041096 0.088074 0.0307 5.24445 0.845886 2.78878 
0.040551 0.087395 0.031899 5.13812 0.731961 3.0052 
0.039919 0.086654 0.033054 5.00819 0.551202 3.25593 
0.039279 0.08567 0.034144 4.87366 0.393861 3.47366 
0.041637 0.088721 0.029451 5.29153 0.869551 2.69046 
0.038703 0.084599 0.035002 4.71225 0.269015 3.70212 
0.036132 0.083258 0.038144 4.66279 0.058835 3.77439 
0.03548 0.081957 0.039001 4.65579 0.153724 3.78091 
0.034903 0.080745 0.039774 4.56547 0.127723 3.88808 
0.034242 0.079618 0.040532 4.37714 -0.109609 4.09643 
0.033213 0.079929 0.041573 4.0501 -0.026292 4.41757 
0.042243 0.090451 0.027655 5.40987 0.778828 2.47224 
0.042211 0.0891 0.028158 5.37172 0.864666 2.52682 
0.042815 0.090763 0.026223 5.48256 0.822284 2.29344 
0.031067 0.079179 0.043277 3.52451 -0.067471 4.84976 
0.032388 0.078894 0.042253 3.83196 -0.279785 4.60089 
0.030185 0.07802 0.043842 3.99986 -0.593258 5.70337 
0.029117 0.078671 0.044638 3.5251 -0.258371 4.8381 
0.043375 0.091001 0.024772 5.54159 0.862006 2.12861 
0.028007 0.077972 0.045397 3.67998 -0.620555 4.68718 
0.026904 0.077476 0.046232 4.5928 -1.03275 5.16787 
0.019273 0.077851 0.051977 3.10279 -0.186213 5.12699 
0.018257 0.07675 0.052485 2.79967 -0.69227 5.25012 
0.01692 0.076983 0.053173 2.44372 -0.623302 5.43271 
0.014569 0.079377 0.053933 1.59906 0.958725 5.69628 
0.015461 0.078461 0.053785 1.57823 0.342308 4.72145 
0.015578 0.077227 0.053747 2.10827 -0.323158 5.59527 
0.011598 0.08232 0.054343 2.23656 0.31551 5.54427 
0.01214 0.080719 0.054321 2.01072 0.941133 6.6261 
0.013222 0.07925 0.054301 1.45567 0.874555 5.74981 
0.023892 0.076684 0.048745 3.63584 -0.923215 4.67535 
0.025948 0.076379 0.046849 4.01371 -1.27647 4.26647 
0.024936 0.076466 0.04781 3.93087 -1.11569 4.38929 
0.023028 0.075576 0.049156 3.57172 -0.991084 4.71491 
0.021873 0.075885 0.050056 3.42758 -0.77202 4.86116 
0.020707 0.076232 0.050907 3.32563 -0.630194 4.95214 
0.019516 0.076496 0.051728 3.10477 -0.623405 5.08755 
0.040366 0.105878 0.013474 6.19017 3.22521 0.508578 
0.039193 0.10816 0.012003 5.96712 3.63672 0.362317 
0.039882 0.106908 0.012418 4.35656 2.43456 0.301238 
0.03683 0.111623 0.011759 4.90492 3.45269 0.124549 
0.037691 0.11044 0.011367 4.89324 3.46726 0.155713 
0.038541 0.109246 0.011018 4.96554 3.36097 0.153528 
0.042329 0.100576 0.017009 4.60147 1.83925 0.661732 
0.042033 0.102034 0.014746 5.49385 2.32079 0.648296 
0.042438 0.100795 0.015562 5.5376 2.20023 0.696625 
0.041614 0.103237 0.013739 5.44242 2.46392 0.549645 
0.043454 0.096088 0.020484 4.6988 1.49315 0.818696 
0.043706 0.095967 0.01908 5.68977 1.71599 0.808699 
0.043497 0.097012 0.018186 5.639 1.88865 0.783551 
0.043244 0.098103 0.017229 5.59442 2.02884 0.758278 
0.043796 0.094151 0.02151 5.73014 1.31556 1.1751 
0.043842 0.094882 0.020252 5.72958 1.50319 0.935005 
0.043767 0.092995 0.022657 6.64311 1.23089 1.80624 
0.042877 0.099381 0.016363 5.56622 2.11651 0.732015 
0.043837 0.091366 0.023314 5.66572 0.877427 1.75746 
0.041086 0.104547 0.01282 5.38747 2.60064 0.452862 
-0.00021 0.088467 0.056713 0.430936 1.48577 5.79511 
0.000825 0.087265 0.056976 0.310102 1.48359 5.80246 
0.001909 0.086056 0.057209 0.402467 1.075 5.8779 
0.003117 0.084748 0.057254 0.918629 0.333304 6.91146 
0.00595 0.082968 0.056489 1.95343 -0.907192 6.65812 
0.004592 0.083796 0.056974 1.34125 -0.408655 5.81916 
0.008472 0.081959 0.055518 1.98149 -0.461087 5.63571 
0.00698 0.081705 0.055983 1.70796 -0.637157 5.70894 
0.010804 0.081379 0.054688 1.62116 0.249337 4.71658 
0.009494 0.081081 0.05514 1.86907 0.123623 5.69243 
-0.001743 0.088252 0.056872 0.397333 1.24829 5.85293 
-0.014262 0.101928 0.044131 -0.680577 2.61701 5.32113 
-0.014827 0.103057 0.043673 -0.538251 1.77249 5.70142 
